ply
format ascii 1.0
element vertex 148
property float x
property float y
property float z
end_header
4.90654 0.449827 24.2765
4.97664 0.657439 25.1991
4.90654 0.726644 24.6022
4.92991 0.865052 25.0523
4.92991 0.968858 25.2427
4.97664 1.10727 25.9929
4.97664 1.31488 26.4958
4.85981 1.34948 25.4389
4.85981 1.45329 25.7298
4.97664 1.45329 26.8789
4.97664 1.55709 27.1914
4.88318 1.5917 26.3789
4.97664 1.6609 27.5255
4.85981 1.6955 26.4925
5.02336 1.86851 28.7255
5.60748 2.49135 37.6506
6.98598 4.77509 71.6054
6.98598 5.0519 74.3257
2.8972 5.08651 34.2663
4.41589 5.25952 47.1626
5.44393 5.25952 57.2988
3.43458 5.32872 40.1916
4.81308 5.36332 51.931
7.21963 5.36332 80.8882
3.15421 5.39792 39.0866
4.6028 5.39792 50.3234
4.85981 5.39792 52.7554
5 5.39792 54.1376
5.11682 5.39792 55.3195
5.18692 5.39792 56.0417
4.29907 5.43253 47.9943
5.56075 5.43253 60.4343
5.67757 5.43253 61.7471
3.50467 5.88235 46.8848
6.3785 5.98616 76.5194
8.34112 6.02076 105.824
8.41121 6.02076 106.998
1.51869 6.05536 38.9738
3.50467 6.05536 48.9502
6.54206 6.19377 81.1613
7.57009 6.19377 95.6691
3.31776 6.29758 50.667
7.8271 6.29758 100.923
2.05607 6.33218 44.3239
6.4486 6.33218 81.6809
6.54206 6.33218 82.895
7.66355 6.36678 99.2659
9.20561 6.36678 125.279
2.21963 6.40138 45.9045
7.59346 6.43599 99.0825
2.1729 6.47059 46.59
9.20561 6.47059 126.612
2.28972 6.50519 47.5603
7.00935 6.50519 91.4484
7.05607 6.53979 92.5571
2.85047 6.57439 51.3478
7.57009 6.57439 100.529
8.6215 6.57439 117.553
1.33178 6.609 45.4525
6.65888 6.609 88.0195
7.38318 6.609 98.1901
2.5 6.6436 50.3874
3.20093 6.6436 54.3834
7.33645 6.6782 98.4218
8.31776 6.6782 113.783
1.56542 6.7128 47.5123
6.61215 6.7128 88.7822
3.27103 6.74741 56.2271
6.89252 6.74741 93.0344
2.54673 6.78201 52.4814
2.96729 6.78201 54.8004
1.89252 6.81661 50.0478
7.96729 6.81661 109.944
6.93925 6.85121 95.0923
7.31308 6.85121 100.42
8.15421 6.85121 113.43
1.72897 6.88581 50.4038
2.94393 6.88581 56.0811
3.27103 6.88581 58.114
8.03738 6.88581 112.014
0.864486 6.92042 48.6395
2.47664 6.92042 54.0259
8.99533 6.95502 129.288
9.41589 6.95502 137.031
0.46729 6.98962 49.0731
0.864486 6.98962 49.6021
6.72897 6.98962 94.1338
8.10748 6.98962 114.586
1.7757 7.02422 52.4928
2.75701 7.02422 56.9408
7.12617 7.02422 100.122
7.33645 7.02422 103.163
7.40654 7.02422 104.197
9.15888 7.02422 133.225
9.2757 7.02422 135.378
9.39252 7.02422 137.559
0.560748 7.05882 50.1414
2.35981 7.05882 55.3957
2.85047 7.05882 57.9522
3.15421 7.05882 59.776
7.92056 7.05882 112.562
8.20093 7.05882 117.082
0.864486 7.09343 51.064
8.03738 7.09343 114.916
9.11215 7.09343 133.348
0.537383 7.12803 51.0976
0.630841 7.12803 51.2067
0.747664 7.12803 51.3678
1.75234 7.12803 53.8795
8.13084 7.12803 116.919
9.22897 7.12803 135.983
9.34579 7.12803 138.153
9.15888 7.16263 135.188
9.2757 7.16263 137.342
0.700935 7.19723 52.2915
8.45794 7.23183 123.836
6.61215 7.40484 98.5522
1.91589 7.43945 59.016
3.31776 7.43945 66.3529
4.92991 7.43945 79.6493
9.41589 7.47405 144.52
0.490654 7.50865 56.6206
4.46262 7.50865 76.2948
4.74299 7.50865 78.8758
5.11682 7.50865 82.5617
5.46729 7.50865 86.2711
0.88785 7.54325 57.6889
5.28037 7.54325 84.783
4.18224 7.57785 74.915
4.36916 7.64706 77.5671
5.49065 7.64706 88.6248
4.2757 7.71626 77.8223
5.58411 7.71626 90.723
4.2757 7.82007 79.4351
5.60748 7.85467 93.1397
7.12617 7.95848 114.12
4.08879 7.99308 80.6075
1.65888 8.09689 68.3114
4.95327 8.85813 103.001
9.43925 9.10035 171.916
0.443925 9.13495 83.6443
0.934579 9.13495 84.3207
8.97196 9.13495 163.943
2.40654 9.44637 95.0253
3.08411 9.44637 98.7456
6.75234 9.44637 134.828
7.12617 9.44637 140.016
2.85047 9.48097 98.0139
