ply
format ascii 1.0
element vertex 148
property float x
property float y
property float z
end_header
4.86747 0.212766 23.7375
4.86747 0.319149 23.7941
4.93976 0.460993 24.6137
4.86747 0.496454 23.9387
4.89157 0.638298 24.3348
4.93976 0.886525 25.1871
4.93976 1.09929 25.6097
4.81928 1.13475 24.5131
4.81928 1.24113 24.7658
4.93976 1.24113 25.9416
4.93976 1.34752 26.217
4.84337 1.38298 25.3709
4.93976 1.4539 26.515
4.98795 1.66667 27.6574
5.59036 2.30496 36.565
7.01205 4.64539 70.7485
7.01205 4.78723 72.0864
2.79518 4.92908 32.1088
7.01205 4.92908 73.4646
4.36145 5.1773 45.8267
3.3494 5.21277 38.3914
7.25301 5.24823 80.1501
3.06024 5.28369 37.2824
4.55422 5.28369 48.6583
4.81928 5.28369 51.1428
4.96386 5.28369 52.5572
5.08434 5.28369 53.7678
5.15663 5.28369 54.5082
5.3494 5.28369 56.5334
5.42169 5.28369 57.312
4.24096 5.31915 46.2791
4.48193 5.31915 48.381
5.66265 5.31915 60.359
3.42169 5.78014 45.118
6.38554 5.88652 75.4263
8.40964 5.92199 105.792
8.48193 5.92199 107.013
1.37349 5.95745 37.3777
6.55422 6.09929 80.1591
7.61446 6.09929 95.1813
3.22892 6.20567 48.9363
7.87952 6.20567 100.597
1.92771 6.24113 42.6678
6.45783 6.24113 80.6553
6.55422 6.24113 81.9095
7.68675 6.24113 98.0378
2.09639 6.31206 44.2369
7.63855 6.34752 98.6385
2.04819 6.38298 44.9375
9.3012 6.38298 127.255
2.16867 6.41844 45.8995
7.03614 6.41844 90.7037
2.74699 6.48936 49.6578
7.61446 6.48936 100.092
8.6988 6.48936 117.781
1.18072 6.52482 43.9674
2.81928 6.52482 50.5216
6.6747 6.52482 87.1249
7.42169 6.52482 97.6547
2.38554 6.56028 48.7281
3.10843 6.56028 52.6997
7.37349 6.59574 97.8723
8.38554 6.59574 113.821
1.42169 6.63121 45.9941
6.62651 6.63121 87.8835
3.18072 6.66667 54.5614
6.91566 6.66667 92.2708
2.43373 6.70213 50.8416
2.86747 6.70213 53.1409
8.04819 6.73759 110.169
7.3494 6.77305 99.8878
8.21687 6.77305 113.391
0.698795 6.80851 46.8441
1.59036 6.80851 48.8851
2.84337 6.80851 54.4406
3.18072 6.80851 56.4728
7.03614 6.80851 95.8632
8.09639 6.80851 111.907
2.36145 6.84397 52.4164
2.74699 6.84397 54.3859
9.08434 6.87943 129.852
9.51807 6.87943 137.92
0.289157 6.91489 47.8994
0.698795 6.91489 48.3041
6.74699 6.91489 93.3376
8.16867 6.91489 114.543
1.63855 6.95035 50.9923
2.6506 6.95035 55.3331
7.15663 6.95035 99.5247
7.37349 6.95035 102.676
7.44578 6.95035 103.747
9.25301 6.95035 133.926
9.37349 6.95035 136.17
9.49398 6.95035 138.443
0.385542 6.98582 48.9503
0.53012 6.98582 49.0826
2.24096 6.98582 53.8235
2.74699 6.98582 56.3476
3.06024 6.98582 58.1667
7.9759 6.98582 112.417
8.26506 6.98582 117.113
0.698795 7.02128 49.7866
8.09639 7.02128 114.85
9.20482 7.02128 134.027
0.361446 7.05674 49.9282
0.457831 7.05674 50.0072
0.60241 7.05674 50.1604
1.61446 7.05674 52.404
8.19277 7.05674 116.919
9.3253 7.05674 136.759
9.44578 7.05674 139.02
9.27711 7.0922 136.364
9.37349 7.0922 138.162
0.53012 7.12766 51.0846
8.53012 7.16312 124.073
3.95181 7.2695 68.4625
3.22892 7.34043 64.3077
6.62651 7.34043 97.7924
1.78313 7.37589 57.5833
4.89157 7.37589 78.3311
5.06024 7.37589 80.0097
9.51807 7.41135 145.522
0.313253 7.44681 55.5531
4.40964 7.44681 74.8999
4.6988 7.44681 77.5336
5.08434 7.44681 81.3054
5.44578 7.44681 85.1115
9.10843 7.44681 138.419
0.698795 7.48227 56.4727
5.25301 7.48227 83.5785
4.12048 7.51773 73.4946
4.31325 7.58865 76.1918
5.46988 7.58865 87.5072
5.56627 7.65957 89.6524
4.24096 7.69504 77.1993
4.21687 7.76596 78.0921
5.59036 7.80142 92.1143
4.0241 7.94326 79.2888
1.51807 8.04965 67.1013
4.91566 8.82979 102.129
9.54217 9.07801 173.463
0.26506 9.11347 83.1257
0.746988 9.11347 83.6134
9.06024 9.11347 165.143
2.28916 9.43262 94.2146
6.77108 9.43262 134.822
7.15663 9.43262 140.192
2.74699 9.46809 97.1906
