ply
format ascii 1.0
element vertex 180
property float x
property float y
property float z
end_header
544 29 296777
523 40 275129
544 51 298537
523 55 276554
700 193 527249
187 200 74969
188 205 77369
496 219 293977
502 219 299965
202 223 90533
234 234 109512
499 236 304697
409 242 225845
402 245 221629
742 246 611080
676 247 517985
153 249 85410
492 255 307089
497 255 312034
620 255 449425
681 255 528786
162 256 91780
743 258 618613
446 259 265997
487 264 306865
492 264 311760
452 266 275060
171 267 100530
230 270 125800
681 271 537202
492 273 316593
446 275 274541
220 276 124576
186 278 111880
204 282 121140
736 286 623492
189 287 118090
676 293 542825
126 304 108292
491 304 333497
133 305 110714
486 305 329221
451 307 297650
734 307 633005
445 308 292889
483 309 328770
706 310 594536
437 311 287690
709 311 599402
727 316 628385
716 317 613145
733 317 637778
737 317 643658
722 318 622408
706 319 600197
626 324 496852
609 325 476506
587 327 451498
636 328 512080
571 329 434282
621 329 493882
630 329 505141
223 331 159290
726 331 636637
592 332 460688
715 332 621449
736 332 651920
724 333 635065
713 334 619925
144 335 132961
698 335 599429
227 337 165098
631 337 511730
641 337 524450
644 337 528305
626 338 506120
635 338 517469
200 339 154921
222 339 164205
609 339 485802
603 340 479209
590 341 464381
597 341 472690
214 342 162760
574 343 447125
184 344 152192
561 344 433057
204 346 161332
173 347 150338
180 352 156304
185 352 158129
230 358 181064
490 358 368264
225 359 179506
461 360 342121
471 360 351441
452 361 334625
220 362 179444
213 364 177865
208 366 177220
454 367 340805
203 368 176633
198 369 175365
188 371 172985
183 372 171873
178 373 170813
172 374 169460
168 375 168849
201 389 191722
231 389 204682
513 392 416833
184 393 188305
508 393 412513
470 394 376136
169 395 184586
465 395 372250
107 397 169058
200 398 198404
231 398 211765
107 399 170650
194 400 197636
109 401 172682
513 402 424773
507 403 419458
464 404 378512
470 404 384116
739 405 710146
508 411 426985
164 412 196640
458 413 380333
464 413 385865
584 414 512452
739 415 718346
109 417 185770
180 426 213876
170 435 218125
739 435 735346
163 438 218413
641 439 603602
464 441 409777
584 441 535537
641 447 610690
205 448 242729
192 450 239364
463 450 416869
470 450 423400
513 450 465669
167 451 231290
179 451 235442
229 451 255842
507 451 460450
169 452 232865
497 454 453125
584 455 548081
219 460 259561
739 460 757721
640 462 623044
583 464 555185
189 465 251946
176 468 250000
228 472 274768
175 473 254354
138 480 249444
142 480 250564
136 482 250820
222 484 283540
229 484 286697
206 485 277661
212 485 280169
276 485 311401
196 488 276560
229 488 290585
272 490 314084
535 491 527306
145 497 268034
117 498 261693
122 498 262888
119 499 263162
486 502 488200
432 506 442660
